ply
        format ascii 1.0
        element vertex 19273
        property float x
        property float y
        property float z
        property uchar blue
        property uchar green
        property uchar red
        end_header
-272.492456 471.122646 1365.143490 202 199 170
-239.505625 -322.598171 1940.386200 247 234 230
-271.566916 554.996014 1312.951279 194 190 142
-271.638942 571.042490 1302.284622 197 202 194
-282.581306 393.190289 1389.000416 79 84 51
-258.197117 -205.964065 1819.950676 173 171 121
-270.875716 479.904032 1359.368515 195 197 177
-299.499416 300.826788 1405.300426 142 148 113
-278.129172 681.159306 1212.250805 83 90 71
-256.070137 -139.659178 1775.253296 177 172 110
-243.645573 -265.458965 1881.285858 183 180 136
-141.158783 158.253503 1841.228104 20 17 17
-141.158783 158.253503 1841.228104 20 17 17
-279.787803 635.263252 1234.647751 154 147 144
-253.819585 -201.292086 1814.655495 63 63 46
-250.541234 -177.081668 1802.897263 175 168 123
-276.490521 627.771378 1240.927124 137 137 143
-276.755190 671.220636 1211.100388 169 167 152
-130.944538 160.015273 1844.304466 19 16 15
-234.816432 -274.141407 1885.151100 168 166 93
-275.012422 362.026429 1402.950096 42 44 44
-267.607951 401.418018 1394.040012 184 181 159
-267.998528 365.632224 1410.431671 47 50 34
-228.100348 -269.990540 1881.964111 135 138 70
-238.605714 -199.287915 1814.558601 175 166 116
-240.546322 -127.279544 1762.675476 121 112 70
-213.803434 -313.819575 1930.933189 246 234 229
-270.163488 668.239498 1210.949898 187 188 179
-219.501328 -269.811869 1885.774040 161 158 83
-269.292951 672.164392 1206.498718 127 132 114
-252.328300 386.405134 1413.862801 86 81 41
-252.328300 386.405134 1413.862801 86 81 41
-228.317380 -195.279884 1812.310982 49 46 23
-265.530276 354.047632 1401.311588 36 39 29
-113.786709 157.158077 1839.776230 26 18 17
-205.616164 -272.867441 1900.962448 167 164 98
-256.508183 341.679525 1418.805218 143 143 86
-222.094202 -133.539832 1762.411308 47 45 28
-121.000516 143.359065 1809.792137 90 89 56
-220.806241 -113.461959 1749.842262 20 15 13
-220.806241 -113.461959 1749.842262 20 15 13
-163.448298 65.217394 1761.990929 63 65 41
-111.286640 114.826500 1840.041733 39 36 25
-112.908876 115.435159 1834.928703 39 36 25
-178.061759 47.220477 1738.108826 81 79 47
-181.184125 41.691265 1734.376526 99 94 52
-251.317620 354.089403 1402.614594 55 57 34
-252.096987 353.941274 1400.269890 55 57 34
-245.589542 330.210781 1425.827694 44 44 30
-194.601166 -40.253636 1740.611076 29 27 25
-191.270661 -46.749878 1746.794510 68 62 41
-204.587078 -141.231561 1771.432114 125 118 74
-226.000571 387.688875 1419.550896 67 73 47
-181.814265 -214.086127 1851.461601 140 137 79
-179.113841 0.114356 1731.544495 14 13 13
-184.463978 -210.429001 1841.081429 140 137 79
-185.491538 -31.260031 1735.596085 154 138 93
-170.488858 34.036174 1726.373863 15 14 14
-211.492467 522.379589 1362.253284 130 129 125
-211.492467 522.379589 1362.253284 130 129 125
-163.128340 -271.715045 1916.054153 23 23 11
-119.174826 95.186108 1793.768883 21 20 20
-209.222746 526.032352 1359.636021 199 192 154
-173.308885 24.941476 1715.981293 140 130 94
-175.692964 5.359227 1721.774101 115 101 66
-119.060206 117.741597 1771.452332 230 214 208
-241.260624 298.686481 1417.001438 98 111 82
-190.090418 -82.923073 1736.680222 126 116 69
-149.381590 -207.465863 1889.740372 37 35 21
-176.884484 -32.522002 1734.129715 27 25 22
-176.740110 -22.833176 1723.644447 153 141 97
-170.284545 -5.718836 1725.329018 17 15 12
-182.626104 -73.402661 1735.448837 162 156 89
-143.184209 -205.743837 1888.535690 123 111 63
-175.809073 -54.401308 1737.204933 128 121 97
-207.309961 234.470654 1511.255741 115 119 70
-198.330176 530.379915 1361.908913 107 105 108
-174.743783 -50.564736 1733.331108 158 150 99
-159.141982 26.875475 1713.327599 133 122 76
-167.794931 -19.339034 1721.623993 147 136 91
-168.591714 2.672513 1707.255745 163 152 100
-131.748569 -185.124683 1882.867622 55 50 27
-203.172541 258.819008 1493.648529 199 201 178
-203.172541 258.819008 1493.648529 199 201 178
-137.880743 -210.506082 1882.823372 172 168 99
-131.037676 -190.928519 1884.810448 192 179 114
-192.057645 525.464678 1365.603828 110 110 120
-203.118229 270.696163 1483.975601 110 135 88
-127.248418 -179.010749 1882.180977 34 30 25
-206.916785 365.784454 1421.352959 120 119 90
-159.338450 5.290349 1708.600616 16 13 13
-159.338450 5.290349 1708.600616 16 13 13
-188.646185 527.517748 1363.391495 206 199 162
-192.764616 413.867807 1416.950989 109 108 86
-160.408711 -23.184009 1721.005440 23 20 20
-131.599164 76.044649 1721.069336 96 92 65
-124.410951 -232.499862 1901.989937 51 42 15
-124.410951 -232.499862 1901.989937 51 42 15
-191.107893 389.703274 1428.827858 99 97 62
-191.107893 389.703274 1428.827858 99 97 62
-78.914863 -194.646835 1965.422058 140 133 81
-157.780147 -3.527727 1702.616692 159 140 92
-181.784320 538.108015 1360.225201 183 181 164
-188.763368 240.415478 1506.899357 186 185 166
-113.411367 -223.292232 1904.697990 182 167 96
-73.171586 -191.229057 1961.847878 48 46 42
-150.444293 -50.918400 1734.466553 50 44 29
-178.211713 515.165901 1373.513222 135 136 124
-150.461960 -64.973319 1741.235161 148 137 83
-150.461960 -64.973319 1741.235161 148 137 83
-63.131106 -206.787729 1979.319763 183 170 113
-68.740249 -185.325503 1956.292534 192 180 126
-137.717652 29.604506 1704.697227 121 117 90
-556.904650 339.416099 724.302197 88 97 60
-172.508061 416.359329 1427.939701 180 175 130
-146.591938 -12.320469 1704.910278 23 20 21
-146.591938 -12.320469 1704.910278 23 20 21
-180.706716 376.069450 1430.056572 75 76 49
-170.795667 557.824039 1351.278210 195 187 163
-170.795667 557.824039 1351.278210 195 187 163
-170.141256 563.993359 1347.816467 207 197 165
-144.470370 -10.082309 1700.753975 17 16 15
-168.327391 548.471355 1356.031513 192 202 205
-121.423638 89.316273 1689.730072 96 81 55
-134.540534 28.151810 1696.516228 129 121 83
-144.490492 -19.196750 1699.072838 158 150 97
-179.944289 367.647147 1426.121902 146 145 96
-166.294158 390.798736 1435.840416 117 112 60
-134.408927 -10.813291 1706.087875 101 97 75
-167.363811 264.943790 1497.452068 175 179 146
-102.959549 156.819248 1669.921875 80 71 50
-123.112047 485.110188 1458.306408 210 201 163
-120.394850 39.916849 1691.073036 151 133 90
-97.452158 168.924665 1665.224075 178 155 91
-156.787908 271.944952 1495.964813 111 135 77
-121.376908 15.672968 1691.433907 98 91 51
-144.899631 574.844503 1348.067188 136 142 151
-89.795166 53.481764 1714.216232 111 100 61
-142.236519 579.826069 1346.038628 211 202 177
-87.532985 173.265481 1652.344513 188 175 110
-142.737579 264.046311 1503.942871 180 184 157
-138.937843 392.435265 1439.776897 106 107 57
-135.321188 415.244722 1432.065582 106 105 50
-136.241853 583.223629 1345.732021 116 124 138
-99.532580 32.231146 1684.623528 166 152 93
-60.015011 -121.291900 1830.372238 92 82 48
-126.375318 419.075871 1438.765240 168 165 106
-126.375318 419.075871 1438.765240 168 165 106
-168.278539 286.842012 1427.560616 82 84 59
-129.030108 411.169767 1434.999180 180 180 125
-57.362515 -128.120315 1831.105804 116 102 63
-72.967702 179.328275 1649.593925 183 163 105
-72.967702 179.328275 1649.593925 183 163 105
-123.327053 415.952349 1437.111855 104 106 51
-70.724958 198.258436 1638.087845 180 162 96
-55.793339 -147.035551 1835.736275 149 135 77
-67.802870 173.221910 1652.968979 109 94 41
-64.972520 213.029766 1631.202507 173 158 105
-117.107487 416.277981 1435.822392 101 107 56
-117.107487 416.277981 1435.822392 101 107 56
-155.631506 289.348340 1428.995037 72 78 53
-113.663292 243.478489 1522.900200 190 188 150
-59.988362 202.001834 1636.806679 33 30 11
-59.988362 202.001834 1636.806679 33 30 11
-107.696068 254.675913 1515.701580 131 132 111
-53.323984 198.010516 1636.610031 181 162 112
-103.801250 247.438025 1521.345901 181 180 158
-105.557001 273.353124 1505.776882 108 129 73
-105.818546 549.896145 1371.340656 178 195 195
-104.281723 561.141062 1365.606594 122 125 138
-97.499609 393.937087 1447.430611 88 95 54
-90.686452 271.619558 1510.434055 109 109 76
-89.054495 246.983957 1523.848248 213 209 186
-92.691845 394.201255 1447.016239 99 104 51
-90.250450 536.691999 1381.824970 126 125 135
-90.250582 571.729136 1362.266254 160 160 170
-100.676429 342.334294 1449.938488 148 146 95
-45.042440 222.917175 1599.412060 181 174 108
-81.855190 511.125135 1400.603199 207 202 178
-83.341777 514.477396 1395.069408 108 112 127
-81.439394 395.048141 1453.945732 103 103 57
-87.346196 593.049288 1351.153278 134 135 152
-79.738653 262.027526 1516.983891 124 121 110
-42.681307 227.827144 1592.448807 45 43 25
-75.425613 545.020676 1380.854416 152 149 154
-68.786585 460.133171 1430.008984 132 130 121
-71.663010 534.004927 1386.888218 146 145 150
-60.542554 274.170494 1517.222214 100 116 54
-16.335189 218.575859 1612.148285 253 244 232
-58.879364 275.429940 1513.607502 106 130 68
-65.951413 575.089645 1365.900230 128 134 150
-65.786260 579.548120 1363.574791 140 147 167
-66.458708 373.091984 1452.395821 119 123 78
-49.886277 352.746391 1487.451839 159 161 89
-50.180078 270.986915 1521.564102 191 191 147
-52.572626 478.851700 1422.625542 200 197 180
-85.243922 297.987652 1448.170567 119 124 103
-51.428896 513.056231 1404.344845 137 141 151
-79.745227 304.516840 1448.294163 55 59 48
-67.677021 351.688027 1447.309875 159 161 89
-53.878671 603.534555 1353.644180 149 155 166
-48.296043 519.354582 1399.101543 205 204 202
-51.025993 594.385624 1359.560108 218 208 191
-48.536316 556.600904 1378.358841 209 204 197
-36.769548 270.986819 1522.768116 189 193 137
-21.932828 248.318553 1544.474506 185 187 148
-32.581192 392.410660 1462.925243 136 138 61
-27.493954 421.792650 1451.274586 203 195 139
-24.717079 398.049355 1461.102772 181 176 105
-24.717079 398.049355 1461.102772 181 176 105
-4.094657 251.081157 1556.889439 254 243 244
-5.083463 251.459384 1554.474831 254 243 244
-15.330210 378.776789 1459.917164 58 61 44
-16.253980 362.979674 1451.411057 161 162 137
-4.208352 413.462257 1447.361660 187 189 154
7.629311 267.692161 1524.661922 252 240 238
-19.029529 675.647354 1314.019299 158 162 166
-4.190288 396.835780 1451.900291 105 109 81
-14.822830 314.508271 1463.045311 172 175 149
6.598654 441.500139 1441.443729 45 49 54
8.262183 437.008810 1442.766762 193 195 193
-14.944686 301.275516 1461.056614 137 138 84
7.321212 347.242546 1473.037148 167 160 97
12.460587 415.621185 1449.466228 89 93 75
18.646729 353.180814 1483.846092 155 155 107
10.112073 387.387085 1455.437183 186 188 190
19.231115 440.555334 1445.189667 95 91 80
19.367746 461.650467 1435.362148 165 163 151
20.126224 434.105682 1446.830463 146 143 134
13.311009 508.837748 1402.399158 178 182 169
22.849166 426.531506 1448.965359 255 249 243
21.417195 481.158590 1422.990227 154 154 143
24.243203 496.697712 1412.360001 180 180 180
2.881611 695.140696 1299.082565 171 172 149
26.110342 501.509857 1410.579014 154 152 148
45.557299 318.984365 1510.471249 163 163 105
25.410470 362.364912 1462.316990 174 170 136
25.551713 365.718699 1459.605503 91 90 67
26.925978 302.740335 1471.761608 124 132 122
47.125828 348.592973 1478.048038 251 240 237
45.875847 365.492821 1465.739822 83 84 83
31.887731 297.283983 1470.709229 63 67 61
48.935911 331.383562 1480.738640 46 48 39
56.556123 328.968096 1477.901936 58 55 40
61.223811 312.099314 1485.028076 67 70 63
65.567976 316.330624 1478.262615 252 239 237
71.738607 298.638129 1480.740929 79 76 77
72.805762 302.417922 1479.412174 245 233 215
35.486194 682.391834 1280.100441 195 195 197
38.153353 665.472746 1286.328888 127 130 136
40.573215 654.128551 1292.922306 156 158 159
40.573215 654.128551 1292.922306 156 158 159
37.653095 675.776720 1280.843639 119 119 126
38.849148 668.711615 1283.883667 131 130 136
41.097072 658.269548 1287.757397 155 156 161
40.948617 672.613955 1280.422592 189 189 182
43.695998 655.489016 1289.945221 203 201 201
-443.833399 901.998138 1853.122902 142 138 140
-469.110155 789.501333 1906.595993 135 118 114
-424.469900 884.500027 1875.197029 104 112 131
-427.578020 798.710203 1924.468040 183 197 219
-401.339912 878.427887 1899.473381 93 108 127
-413.383436 769.625378 1970.320320 75 84 99
-406.521225 780.278206 1983.268929 184 182 183
-364.042616 804.995632 1549.928093 157 161 138
-414.751911 472.063684 1772.582626 46 56 63
-407.111835 478.174019 1770.592499 55 72 85
-350.420737 798.946047 1537.180233 132 132 136
-380.708814 522.858667 1723.860168 253 253 248
-381.967425 515.150118 1718.549728 66 69 55
-373.787284 539.214706 1707.179451 254 252 252
-392.139745 463.275051 1708.618546 69 104 120
-378.663135 492.499399 1738.764000 80 78 37
-371.227479 525.133467 1691.693306 182 181 177
-394.182038 369.056773 1785.338211 255 243 241
-367.353153 513.623428 1688.011742 188 189 187
-366.892862 507.409525 1690.686607 55 56 48
-359.294391 539.367914 1674.941826 92 97 86
-350.719023 555.925274 1665.351295 166 169 166
-401.998425 257.044959 1773.028755 241 229 223
-385.904050 408.361435 1632.514000 74 103 112
-399.660468 261.796880 1759.984398 72 60 42
-397.479057 252.486610 1772.040558 34 36 28
-397.785330 252.438164 1767.906952 34 36 28
-375.520492 428.460693 1627.096939 25 37 36
-400.322914 212.870789 1790.023041 33 27 16
-393.676066 229.220128 1780.409622 124 120 76
-383.463907 276.271796 1744.049263 187 175 113
-383.025122 270.386863 1745.919991 25 25 18
-373.390436 295.097804 1764.119530 21 19 22
-387.700868 236.916184 1758.016586 18 18 17
-338.116193 510.487938 1654.905891 166 164 89
-380.450392 266.053367 1743.866539 185 166 110
-387.009382 220.193958 1762.040329 38 38 30
-386.876392 214.097333 1769.224548 36 33 19
-375.783038 265.195227 1741.735268 52 45 28
-458.142138 -52.221864 1722.809410 253 242 239
-337.109852 499.424362 1636.551857 138 140 71
-298.089647 769.149303 1477.550030 125 133 140
-336.812019 489.751911 1620.476532 179 177 113
-367.159629 255.483031 1741.598701 106 87 40
-393.186569 59.370059 1822.474861 151 132 76
-356.561923 175.039673 1846.992493 55 47 28
-373.181534 156.086671 1787.638092 250 236 232
-330.198264 470.822144 1591.173553 145 145 75
-444.811535 -82.053369 1700.064468 168 154 92
-390.396690 -12.941448 1858.026314 79 69 40
-364.325142 157.870555 1777.182579 158 150 110
-431.824684 -74.699020 1722.393608 254 242 239
-352.422166 223.314500 1744.276619 147 135 80
-408.158731 -329.483724 2079.009438 101 90 50
-413.981009 -346.355152 2071.289444 133 119 38
-334.002328 277.394056 1722.477341 88 82 39
-339.516091 241.594744 1729.900742 183 181 117
-339.516091 241.594744 1729.900742 183 181 117
-422.056913 -129.134500 1765.132332 183 180 106
-377.062273 -56.026298 1888.487053 104 93 50
-417.118883 -167.407811 1815.685463 187 182 120
-414.970732 -123.349380 1771.906471 81 73 31
-352.330279 101.448739 1800.712395 90 86 81
-336.725283 177.118289 1784.156418 60 55 39
-413.231897 -192.785680 1846.799660 101 103 41
-411.888933 -174.518156 1830.615616 178 174 111
-411.888933 -174.518156 1830.615616 178 174 111
-394.433451 -330.005932 2076.298523 91 82 50
-329.501009 244.597173 1727.084732 170 161 97
-342.516804 103.846121 1819.546127 18 17 17
-406.105709 -170.744443 1822.864723 191 189 120
-329.095840 166.859651 1793.139458 56 55 44
-329.035473 196.530628 1760.770035 148 139 84
-383.085728 -329.029799 2076.263428 75 71 49
-380.556750 -313.907290 2069.958305 254 246 245
-311.362338 468.404150 1526.248646 126 128 63
-331.834364 100.710261 1831.299591 88 82 44
-414.011335 -437.804365 2043.362617 253 249 244
-376.629281 -335.216546 2075.491714 254 249 248
-376.629281 -335.216546 2075.491714 254 249 248
-313.682747 230.819726 1738.358116 62 58 22
-314.819169 437.186813 1511.421394 120 116 47
-392.981434 -196.795201 1837.303162 197 193 116
-313.500547 207.593799 1748.363304 102 90 45
-351.557589 -20.626660 1818.224525 102 103 73
-305.832362 190.407586 1774.135208 53 46 30
-366.872787 -144.684112 1855.202866 10 9 8
-356.014085 -55.745298 1806.943321 171 161 89
-356.014085 -55.745298 1806.943321 171 161 89
-367.025518 -344.383430 2051.922417 246 242 244
-375.804496 -218.104744 1884.663010 193 189 116
-377.342439 -401.491165 2052.484703 29 29 13
-347.824287 -46.382126 1813.776398 11 8 9
-291.540837 183.816957 1795.094109 12 10 8
-356.565475 -160.593712 1870.516777 127 111 65
-356.565475 -160.593712 1870.516777 127 111 65
-357.705760 -182.214737 1885.684013 21 18 16
-306.820011 669.417667 1238.676929 155 154 154
-305.430651 674.548435 1238.351059 153 153 149
-351.815486 -169.787896 1875.720215 107 89 50
-358.274221 -236.971331 1913.867760 128 113 55
-343.502903 312.545705 1433.188438 31 49 53
-354.693151 -202.641845 1892.226791 51 48 31
-283.430123 175.005209 1798.543549 115 100 51
-349.833226 -185.213220 1881.432724 124 107 70
-276.747942 193.740416 1803.386688 246 235 229
-275.590754 219.264722 1781.400871 35 34 23
-363.520765 -398.509383 2030.133247 155 143 80
-352.360725 -225.050426 1904.913139 22 18 16
-272.787881 190.442395 1807.985115 46 42 22
-323.999023 3.902159 1784.923363 20 17 16
-341.251397 -179.126155 1891.430283 11 10 9
-364.854670 -423.766184 2031.750107 125 109 61
-342.607617 -70.119196 1777.228928 193 184 103
-342.607617 -70.119196 1777.228928 193 184 103
-367.676020 -450.308657 2040.860748 53 48 37
-368.760204 -465.236902 2045.333290 254 244 237
-344.264913 -216.646147 1898.022842 23 17 8
-324.529576 344.033480 1439.722919 41 43 22
-339.328313 -217.818451 1906.273842 14 11 11
-307.884169 423.620939 1421.856976 174 172 108
-307.884169 423.620939 1421.856976 174 172 108
-367.996120 -468.669844 2031.039810 253 241 238
-315.249515 9.548453 1775.604630 12 10 9
-305.627871 44.711444 1772.452164 117 112 86
-305.627871 44.711444 1772.452164 117 112 86
-293.876004 677.580833 1218.645287 183 182 178
-293.876004 677.580833 1218.645287 183 182 178
-320.727754 362.415576 1408.510780 73 72 53
-296.130610 638.684893 1245.157528 211 209 210
-295.103669 663.149786 1226.275635 194 191 183
-329.308009 -344.806361 2025.389481 15 13 12
-305.413151 413.711739 1409.820461 69 72 45
-323.549652 352.095413 1395.617771 84 88 64
-334.470582 301.026440 1401.168346 130 141 134
-335.723257 -289.633822 1937.353325 197 192 114
-299.002934 45.022085 1766.876411 17 14 16
-331.587791 -240.834403 1904.362679 20 18 14
-301.868129 32.994542 1764.083099 136 128 96
-313.495374 -10.878624 1757.947922 122 113 76
-325.428605 -210.605431 1895.582390 52 42 29
-330.738544 -278.402543 1931.482506 155 148 73
-287.478471 579.269505 1311.145496 194 197 165
-275.573659 146.573281 1749.286652 151 130 79
-300.781488 25.353873 1763.026810 19 13 14
-291.486931 59.099281 1765.430832 81 77 56
-296.495366 444.701195 1395.541477 123 123 107
-314.515257 378.514409 1385.815144 160 156 109
-301.822805 17.673306 1757.895279 123 109 79
-289.902401 658.530283 1221.915722 126 127 126
-276.997399 115.073109 1758.918381 153 133 77
-320.031428 -363.541961 2030.402184 49 46 32
-286.718512 669.060707 1216.220760 107 110 108
-286.718512 669.060707 1216.220760 107 110 108
-288.737202 541.028118 1321.429062 78 85 67
-290.222049 47.035050 1756.211472 35 34 28
-283.840895 598.639727 1285.750198 149 149 154
-283.840895 598.639727 1285.750198 149 149 154
-282.883930 590.286732 1295.399952 121 123 127
-276.321769 91.738158 1756.786728 58 58 50
-293.188381 446.903849 1378.868103 185 183 165
-286.114407 549.945784 1311.595154 190 190 188
-286.114407 549.945784 1311.595154 190 190 188
-291.980505 432.496500 1393.830585 66 70 55
-280.490232 580.942822 1302.802372 191 195 173
-281.521654 677.200413 1212.718296 167 165 159
-285.952783 520.940113 1323.128891 188 187 180
-295.620966 -0.722438 1743.357086 105 96 68
-289.035296 440.780973 1381.320477 177 174 150
-286.251020 520.570469 1321.537685 188 187 180
-277.491927 572.153664 1307.016945 207 205 179
-277.491927 572.153664 1307.016945 207 205 179
-278.163624 58.827019 1751.307106 29 26 22
-278.163624 58.827019 1751.307106 29 26 22
-277.661490 270.006061 1568.677425 134 166 143
-288.673186 457.617617 1364.393234 121 116 114
-257.644916 127.943492 1762.295914 116 100 68
-267.122984 103.490961 1745.458412 112 100 74
-278.114605 50.718796 1750.495529 117 106 65
-282.421398 479.886866 1360.595226 117 107 99
-284.735727 494.479036 1338.633537 123 118 114
-282.949734 524.091101 1318.086529 109 109 107
-304.909754 348.717451 1390.081310 89 88 62
-320.232797 -464.806414 2032.806778 141 121 58
-275.185299 556.303835 1314.345360 97 103 58
-308.094263 -237.958574 1879.474449 168 157 97
-281.964564 12.922916 1756.172371 17 14 14
-313.184786 -405.906487 2003.827667 57 51 27
-303.690553 -370.205116 2005.353165 28 21 14
-279.737544 532.022715 1314.338684 160 160 158
-295.757198 -333.107471 1992.613220 179 177 126
-279.386806 509.372807 1328.676701 115 110 109
-303.342342 -90.925717 1754.168129 138 127 69
-280.488014 454.427147 1370.058537 117 121 96
-299.931335 -164.413822 1826.753807 197 189 127
-306.426740 -269.116735 1890.717888 168 164 90
-283.326435 -9.564340 1749.555397 15 14 14
-288.404226 395.050859 1387.495804 135 129 69
-289.246559 393.690681 1384.782600 127 119 63
-272.119308 557.155037 1306.280613 193 190 147
-277.424717 457.777691 1370.481110 130 132 120
-299.176979 -175.081778 1829.004097 157 149 94
-264.906573 53.944963 1752.611732 94 83 50
-274.312496 492.176819 1348.896313 114 117 108
-274.381399 485.963631 1352.135563 119 117 113
-284.354472 -31.224507 1750.563431 25 22 21
-303.046227 -271.947098 1884.629631 133 120 47
-275.416112 -14.986867 1765.149879 13 11 13
-272.507501 619.185066 1242.455292 150 150 152
-278.485489 421.073151 1385.621929 185 180 142
-267.629457 29.960394 1748.265266 113 102 71
-267.629457 29.960394 1748.265266 113 102 71
-269.856024 500.565195 1345.313454 191 193 170
-294.586992 -226.335216 1859.220314 134 125 67
-233.269048 210.397530 1708.093071 185 165 106
-233.269048 210.397530 1708.093071 185 165 106
-277.779913 407.943821 1389.334297 165 159 103
-266.030669 674.636269 1207.140923 187 189 173
-302.147794 -459.728289 2021.271324 172 163 92
-292.432284 -269.710422 1896.733665 68 62 30
-302.314901 -465.203905 2024.173546 174 166 93
-292.391682 -214.311981 1842.256927 191 188 120
-277.379918 394.137096 1389.713097 102 102 76
-267.638993 -5.012729 1746.685028 93 87 60
-267.638993 -5.012729 1746.685028 93 87 60
-267.638993 -5.012729 1746.685028 93 87 60
-258.364654 20.261618 1752.523422 79 77 57
-284.335279 -300.356555 1917.823792 195 186 116
-285.572100 -411.785316 2003.018379 61 52 35
-283.594322 -291.478992 1901.568985 60 56 23
-264.240479 416.108656 1392.388153 173 167 125
-225.406313 122.673118 1758.310699 103 90 52
-277.845216 267.667913 1464.490986 104 132 97
-286.707807 -440.188026 2002.268791 180 171 75
-277.433395 -277.516150 1896.950150 170 162 116
-212.933874 127.879429 1778.689766 10 9 7
-277.337313 -223.630714 1840.709877 174 170 104
-246.690464 661.027908 1234.422684 118 120 116
-259.185028 -346.228766 1980.538940 81 67 35
-260.335207 -328.467298 1959.415627 177 173 113
-266.368580 353.623700 1398.990250 35 39 26
-264.000916 -303.021049 1918.171120 23 21 16
-201.422429 213.680744 1719.014359 243 229 222
-252.678108 386.135244 1412.999821 80 83 38
-196.094668 147.645760 1782.081795 16 14 14
-197.869027 147.246218 1773.811150 16 14 14
-261.555147 -292.032456 1906.702042 187 185 128
-255.983996 -387.442803 1983.784485 92 82 32
-258.405614 264.358401 1474.807930 171 178 137
-252.127099 -423.324299 2023.037148 17 15 13
-250.670290 -395.773888 1988.560104 159 143 84
-255.835080 -199.321473 1806.869507 52 51 28
-237.479877 387.271595 1421.098614 70 72 41
-160.550117 148.200750 1841.284943 249 235 229
-157.653558 146.214509 1849.243546 251 238 233
-157.653558 146.214509 1849.243546 251 238 233
-243.943930 277.570415 1478.984165 165 175 155
-247.699904 -271.902394 1878.314781 115 115 62
-260.485458 291.959190 1412.171364 107 118 72
-239.230132 -282.615733 1888.278580 183 181 105
-149.858487 147.401047 1845.334244 24 20 15
-240.985179 -463.410616 2012.705803 176 167 91
-144.920492 153.964221 1851.729774 251 237 234
-144.920492 153.964221 1851.729774 251 237 234
-242.472672 -125.504899 1755.379677 121 115 73
-231.491399 -306.817937 1921.432877 162 158 87
-231.491399 -306.817937 1921.432877 162 158 87
-240.047264 -238.523436 1841.998863 183 186 117
-228.496313 -368.680882 1970.539856 250 237 234
-240.715790 -197.159445 1806.526756 178 166 112
-213.735271 510.515165 1368.203259 111 111 110
-211.139464 522.485113 1363.292408 137 140 130
-234.987211 -86.123401 1732.272911 133 120 66
-139.171124 157.818151 1847.612190 23 20 15
-238.233495 -162.577975 1776.754189 179 174 125
-210.693312 529.354334 1358.323956 202 196 160
-210.767031 503.276968 1374.545097 209 201 165
-234.899807 -177.631211 1793.731689 180 174 132
-144.635773 92.431056 1869.715309 9 9 9
-227.855682 -73.755747 1725.806808 169 156 93
-203.244948 -9.400941 1746.678162 65 67 63
-225.633740 -229.267907 1835.135269 183 179 117
-226.139426 -217.418551 1818.345833 187 183 118
-201.646519 523.956823 1363.655281 115 112 115
-220.392561 364.965224 1418.696308 123 126 90
-220.392561 364.965224 1418.696308 123 126 90
-198.492026 530.263233 1361.518860 107 107 107
-217.155862 -236.524463 1843.354607 170 168 117
-195.012999 543.717098 1354.659653 160 168 160
-215.361929 -199.956667 1811.248779 175 167 118
-192.262673 525.270891 1365.185547 102 104 111
-213.460875 356.475234 1419.309330 63 67 41
-162.894082 201.510143 1666.926956 241 226 220
-188.286626 527.724600 1364.302731 195 189 155
-203.936863 -170.663607 1794.945335 175 164 102
-185.274673 551.079655 1353.106880 172 201 214
-194.766355 396.330643 1426.179218 153 153 115
-193.588459 406.397057 1422.239304 163 162 120
-201.908326 -73.464441 1715.533447 177 174 102
-196.277678 272.105861 1496.190262 119 141 91
-176.369452 25.671211 1719.234276 98 91 62
-193.051136 389.236307 1423.578644 98 98 65
-195.652115 374.863553 1422.437286 68 71 47
-195.652115 374.863553 1422.437286 68 71 47
-197.208583 232.394433 1512.015820 120 124 73
-175.413013 567.546844 1346.137142 133 131 122
-98.798954 155.436444 1839.774513 218 208 198
-192.361784 -81.751949 1729.538727 130 122 73
-195.287859 234.826493 1508.701801 123 125 73
-102.279067 151.019585 1823.977089 72 65 48
-177.608645 -227.928948 1861.017036 22 19 18
-171.498966 530.289745 1368.204021 146 144 129
-169.963300 558.293629 1353.326702 198 194 174
-169.439173 -11.068527 1716.263199 16 14 13
-161.374748 -221.541977 1871.306038 154 139 84
-170.340991 -37.228337 1724.551582 39 39 35
-152.103949 -198.756540 1880.084229 14 12 12
-166.651487 -95.682538 1764.017677 177 169 101
-160.295749 570.317698 1348.106956 212 205 171
-144.550204 -189.012611 1874.624825 143 132 82
-144.970524 -140.785921 1837.868118 16 14 10
-167.976773 390.553379 1431.357002 113 109 52
-141.120350 59.534538 1713.010597 97 100 64
-137.569082 -192.793286 1878.455925 59 55 41
-137.569082 -192.793286 1878.455925 59 55 41
-157.520700 -25.769073 1713.492775 163 152 91
-168.703961 233.199239 1517.728424 132 137 67
-134.668767 -244.176316 1906.597328 186 178 108
-134.668767 -244.176316 1906.597328 186 178 108
-152.214801 -49.900791 1729.076195 56 48 29
-153.230774 -63.402373 1732.826805 153 144 85
-187.952840 287.164378 1418.641376 71 73 52
-126.918042 -184.831715 1876.050186 169 171 103
-158.841252 377.538013 1435.095978 92 94 54
-163.689280 368.603206 1427.403831 157 150 92
-145.228302 -76.718968 1746.047783 194 189 133
-156.403422 238.222218 1519.695473 133 132 63
-148.735166 414.774704 1430.452442 119 111 60
-120.238042 -187.831545 1877.793121 193 192 104
-140.971935 571.456242 1352.225876 207 197 168
-123.435271 91.054618 1693.661499 105 94 68
-119.122159 -236.753106 1905.562210 164 151 91
-105.240881 175.807667 1686.458206 80 72 43
-137.454915 557.838964 1361.332798 131 132 132
-137.454915 557.838964 1361.332798 131 132 132
-152.068818 369.703007 1437.504768 151 150 82
-104.228556 155.122185 1693.669128 111 98 63
-99.730426 184.717596 1686.554527 54 43 29
-84.795231 -185.264528 1952.300453 168 154 87
-135.265982 583.922148 1347.863579 104 117 137
-138.272297 10.323153 1684.321213 172 152 97
-90.707260 209.803462 1685.976982 249 237 231
-151.570487 362.384748 1430.292225 133 133 98
-134.324384 -52.611923 1723.616219 96 93 53
-74.900120 -196.957099 1960.658455 160 146 90
-126.052356 31.808725 1687.516022 82 74 59
-132.825577 416.125917 1437.961388 113 110 52
-103.711545 156.978869 1667.864418 78 69 47
-126.833773 22.721261 1687.846947 145 130 81
-130.024552 420.003366 1439.960480 166 164 95
-122.547472 40.762597 1685.012054 148 133 83
-66.669768 -216.284609 1976.487160 65 61 38
-86.042595 -233.513355 1931.438446 244 229 226
-97.376710 164.410627 1663.215256 179 162 98
-87.089854 212.156320 1659.087563 168 149 81
-112.941992 -1.055462 1718.096161 163 149 98
-56.815082 -218.232656 1987.370110 38 32 17
-119.105303 -30.425143 1696.460533 124 115 72
-111.857533 -13.841020 1700.555229 55 48 42
-115.907753 416.793680 1438.508224 99 109 55
-109.772623 536.404181 1379.980659 117 127 138
-109.772623 536.404181 1379.980659 117 127 138
-80.832976 171.858466 1655.809402 161 144 78
-61.723047 -126.303422 1872.572708 237 221 217
-116.302407 273.527145 1500.200081 86 104 62
-102.855313 530.021524 1384.899712 119 121 134
-100.487339 538.222790 1381.305790 130 133 140
-100.487339 538.222790 1381.305790 130 133 140
-113.060772 379.095721 1439.391518 63 69 38
-113.060772 379.095721 1439.391518 63 69 38
-99.614686 428.111362 1441.103172 115 117 100
-73.306352 190.193248 1639.286613 187 167 97
-110.139060 379.316020 1441.635609 66 72 41
-96.886218 565.420246 1367.185211 183 182 176
-48.714671 -37.556851 1823.882484 13 11 11
-77.775097 69.947672 1691.967201 153 140 78
-33.805728 -67.533976 1874.241066 133 132 86
-68.341470 173.485184 1651.466942 107 89 32
-65.060121 205.316830 1639.616394 181 164 95
-93.478912 528.609228 1387.052917 192 195 198
-64.327228 218.194962 1631.232071 32 33 21
-97.246397 394.278002 1447.795963 90 96 54
-67.757434 108.925664 1678.039932 146 130 72
-98.049611 283.885336 1505.842590 173 180 114
-59.952843 224.070263 1631.028748 149 137 74
-59.819978 -127.092624 1824.722481 111 98 55
-89.241290 537.385273 1383.838272 139 136 149
-59.483761 202.150273 1637.899590 42 40 22
-59.819144 217.561984 1627.750778 168 153 90
-68.206322 -123.907745 1795.142746 111 98 55
-86.820036 517.860174 1394.619083 161 174 187
-58.015621 -145.858550 1829.820633 151 142 98
-93.392736 240.825891 1530.712128 185 182 115
-85.216808 598.644400 1352.306938 135 138 150
-85.216808 598.644400 1352.306938 135 138 150
-84.652925 528.258085 1390.156078 132 134 147
-56.608999 193.484652 1640.994263 123 103 65
-91.741300 271.878839 1507.705116 106 108 72
-81.813252 539.747715 1384.469700 188 187 190
-81.377530 525.937319 1392.282677 181 206 218
-55.181557 191.240656 1637.150192 135 120 72
-80.879790 529.003859 1390.630436 176 192 205
-80.879790 529.003859 1390.630436 176 192 205
-80.226284 592.434025 1357.027340 208 204 193
-53.531843 198.413002 1635.811806 174 154 106
-88.006252 251.426125 1519.708347 134 137 113
-75.958061 420.421553 1449.346161 107 110 55
-86.254740 372.134709 1446.347809 122 122 81
-86.254740 372.134709 1446.347809 122 122 81
-42.690098 189.795458 1645.603371 134 110 60
-42.690098 189.795458 1645.603371 134 110 60
-103.335059 291.943741 1438.391304 78 79 63
-67.787552 521.845770 1397.923756 187 194 198
-35.215124 199.616683 1641.674423 251 239 236
-32.887766 193.862844 1638.979149 251 239 236
-64.354163 395.994949 1454.671192 104 109 45
-93.690979 291.890192 1440.066814 79 81 65
-57.356793 583.754063 1366.374969 214 206 191
-55.928469 574.611664 1371.757126 130 135 144
-60.868776 393.322921 1454.978275 179 180 119
-66.796887 373.423457 1451.370525 117 120 72
-58.667064 396.159220 1452.837181 107 110 54
-51.062953 531.857824 1397.452831 129 142 164
-51.062953 531.857824 1397.452831 129 142 164
-51.204765 549.494553 1387.657928 208 203 188
-78.593755 311.369300 1447.797966 155 159 115
-51.024508 650.029087 1333.082485 152 158 170
-52.860719 383.110237 1459.716511 62 65 37
-20.101520 220.454621 1614.877319 167 161 92
-36.551821 174.726951 1596.442890 250 237 233
-45.293680 275.915909 1517.156601 84 108 36
-3.260907 211.756420 1619.130516 253 241 239
-37.002853 375.433326 1459.961987 145 143 65
-16.179989 243.243003 1559.783936 58 63 28
-31.840968 365.536022 1457.247448 60 64 34
9.714694 240.020227 1587.853622 74 74 37
-13.353743 434.173107 1443.257999 148 147 86
-12.526523 385.497451 1465.062523 53 57 36
-11.398616 668.057585 1326.425838 160 165 163
-11.398616 668.057585 1326.425838 160 165 163
23.486619 236.877632 1594.242001 252 245 237
1.841700 446.668005 1436.519337 198 196 189
-0.278765 452.686071 1428.323650 201 199 191
6.192320 416.156101 1448.773766 178 179 177
13.179477 446.433640 1446.129227 162 164 140
17.653124 433.141613 1450.122833 180 177 158
9.357862 378.625846 1456.702137 185 186 186
23.545647 426.162052 1456.231403 154 143 110
24.058582 394.335127 1449.643040 116 111 56
17.522112 303.257918 1465.450478 127 137 106
41.584113 347.650361 1483.097363 246 233 227
48.550168 366.723084 1470.238400 81 75 64
46.886101 362.205315 1468.818188 243 232 232
137.316072 624.657249 1519.427586 216 213 217
137.316072 624.657249 1519.427586 216 213 217
42.818806 671.864843 1289.880466 124 125 130
44.194224 657.069159 1298.344994 154 156 156
51.009196 673.136616 1285.366535 187 185 178
220.645452 640.974569 1580.385876 106 111 124
225.341678 640.664911 1579.469013 108 116 130
87.951940 696.661949 1302.605724 24 21 20
238.566232 646.507645 1577.720451 70 81 100
233.715343 761.541653 1487.282276 19 17 16
233.715343 761.541653 1487.282276 19 17 16
198.079634 737.014771 1417.832375 19 17 16
-23.575373 501.865530 1107.514954 116 126 140
-368.095779 758.368111 1947.513008 180 180 181
-362.465453 789.151669 1551.380157 149 154 121
-353.707218 726.763391 1579.073238 215 210 213
-385.207438 490.992165 1742.874527 65 68 41
-363.271260 551.059723 1692.736053 125 118 72
-401.010513 276.711178 1759.165192 249 234 224
-360.990858 501.790285 1668.924713 73 79 37
-404.469109 231.134081 1783.449173 247 231 223
-355.291796 512.780380 1674.762344 127 136 63
-394.133925 276.195145 1762.458420 58 53 32
-380.726600 396.448183 1608.916855 115 125 112
-398.074651 239.804220 1764.932632 108 97 59
-392.261577 269.584608 1747.127342 29 29 15
-386.754990 273.227954 1750.739479 42 41 24
-393.314767 224.541664 1776.643372 47 44 25
-380.151010 288.148141 1752.702713 43 43 28
-454.217625 -68.563259 1697.768211 172 164 97
-385.238051 252.788234 1750.291252 148 141 101
-381.989026 244.893312 1744.010925 161 148 102
-371.856570 286.279368 1759.464645 28 26 27
-384.204769 209.419107 1769.465828 147 140 79
-405.294323 72.493362 1823.778534 184 167 112
-384.327269 197.756147 1779.345894 175 156 97
-368.396115 289.379287 1753.879547 250 236 232
-398.986030 97.051775 1811.385536 15 14 14
-373.044205 259.172368 1739.444733 154 139 82
-437.128639 -68.992263 1721.282005 250 238 236
-369.619179 266.203070 1733.665657 166 149 88
-384.443998 164.150071 1780.802536 249 235 221
-327.317071 516.556931 1617.971802 115 121 62
-433.548832 -82.731581 1727.711296 39 36 26
-375.989032 186.184561 1777.398682 57 60 41
-433.868742 -93.191129 1720.928383 161 155 81
-437.203455 -135.402036 1772.021103 144 141 81
-368.047976 226.453280 1750.387764 176 161 108
-367.211246 216.001654 1759.057236 162 149 97
-367.211246 216.001654 1759.057236 162 149 97
-389.951324 39.782554 1834.610558 118 100 61
-429.725742 -127.183235 1756.986618 189 184 116
-421.030855 -108.390427 1752.704048 74 67 29
-349.625087 247.532749 1733.559799 166 152 92
-359.533024 179.783297 1762.011147 33 31 19
-359.583759 179.401410 1758.467865 33 31 19
-359.583759 179.401410 1758.467865 33 31 19
-416.127348 -115.580249 1766.301727 144 138 66
-385.472107 -30.578977 1873.660851 83 70 40
-340.266275 269.586706 1722.014999 78 66 32
-348.745012 196.279538 1766.721153 158 144 92
-336.867476 439.240122 1420.294380 156 153 87
-411.886406 -160.772336 1806.122208 172 163 98
-336.652493 269.240403 1721.562004 158 141 74
-415.165281 -355.010748 2068.733025 254 246 241
-406.031799 -170.121157 1822.591400 194 190 126
-406.031799 -170.121157 1822.591400 194 190 126
-408.822441 -326.081753 2067.188454 94 84 49
-363.397455 29.673886 1839.579582 115 110 76
-396.959043 -126.178730 1803.743744 44 37 24
-398.499894 -179.386342 1829.613304 157 145 72
-394.951797 -163.562512 1819.187164 169 157 88
-325.319529 249.275637 1728.626442 63 56 15
-397.558427 -190.306330 1829.699516 177 167 86
-400.197268 -353.587747 2066.012383 28 22 15
-397.082710 -350.679946 2070.932579 72 68 37
-335.328603 108.558786 1826.843262 75 69 42
-357.597375 -21.594550 1831.909943 18 18 15
-332.625222 85.181177 1839.952087 75 72 48
-293.326116 678.201818 1222.593307 183 184 180
-407.851505 -429.691410 2031.571770 41 40 24
-371.828246 -154.436827 1877.933884 131 116 68
-375.798392 -157.189131 1842.430687 113 101 63
-295.695353 639.080095 1248.387337 209 208 207
-351.217270 -20.741507 1821.196747 100 97 76
-292.056155 660.184383 1227.108002 124 125 125
-376.893425 -334.272718 2071.964455 254 251 252
-376.722598 -331.489968 2061.857986 254 251 252
-376.722598 -331.489968 2061.857986 254 251 252
-321.303558 107.712841 1827.596855 101 94 48
-309.706688 223.703194 1743.048859 62 58 21
-368.973660 -161.068535 1859.214973 23 20 14
-315.778279 114.016187 1832.721138 67 61 39
-286.493182 669.057655 1218.331146 110 113 110
-369.605541 -247.325015 1917.035103 178 170 104
-287.873411 633.091307 1246.697044 210 209 208
-286.645055 627.436924 1253.130150 208 207 208
-281.356454 667.868519 1216.084766 114 114 102
-351.789212 -169.869947 1876.181412 111 95 55
-351.789212 -169.869947 1876.181412 111 95 55
-360.224771 -238.478017 1907.716751 161 149 92
-372.542787 -396.333432 2039.329720 38 38 29
-315.458345 277.745557 1508.460617 85 130 145
-283.492279 598.975849 1287.990284 145 147 154
-363.425088 -263.708329 1911.869240 187 177 97
-304.312110 405.974340 1400.510597 71 76 36
-357.697654 -226.584387 1893.406487 190 178 113
-362.494755 -268.734431 1915.360260 172 158 94
-341.301870 -67.964917 1782.956314 188 181 100
-288.760066 193.222034 1795.621300 89 82 51
-314.884019 333.143830 1411.268711 164 163 121
-346.917295 -175.429785 1880.397797 14 9 7
-329.041171 -18.003921 1786.319733 108 99 81
-351.805925 -325.384164 2043.338203 68 65 45
-337.324762 -115.220571 1831.797791 176 174 98
-283.012962 544.755411 1316.410351 190 187 169
-279.235649 563.637781 1311.785316 187 187 181
-322.744632 -15.608931 1774.685287 52 48 34
-340.998697 -226.385164 1896.379662 15 14 11
-279.206300 540.333366 1314.684010 177 179 159
-279.206300 540.333366 1314.684010 177 179 159
-315.043783 -4.417241 1773.397446 28 26 18
-305.547118 44.766834 1772.978973 124 116 87
-270.699024 216.428852 1787.979126 112 107 51
-305.691433 243.273354 1510.476398 143 167 134
-282.127714 479.862499 1362.838078 131 121 105
-298.615885 372.577477 1388.221550 69 71 43
-309.792304 12.338547 1768.799973 125 112 71
-286.349368 434.347534 1383.229256 174 169 109
-271.315265 195.413125 1770.733452 247 231 228
-301.632094 17.670768 1759.213638 125 110 77
-289.494872 359.952664 1397.012806 99 98 51
-295.584750 239.216590 1505.708504 82 94 77
-271.511412 475.584888 1361.995697 180 182 165
-340.495014 -423.750877 2011.677361 137 123 69
-315.027475 -88.890445 1756.274796 197 190 125
-335.103869 -419.298363 2013.965607 185 172 96
-277.116060 102.945113 1755.163765 143 128 89
-313.986397 -114.199126 1779.795265 133 123 59
-313.987494 -113.936949 1778.884697 133 123 59
-275.848818 107.632315 1754.162788 164 142 100
-320.285296 -363.361311 2028.508377 50 50 35
-312.427950 -174.021757 1851.377106 39 35 19
-283.515859 358.573079 1398.453999 39 36 21
-293.150234 301.668644 1403.013802 149 152 109
-307.583475 -86.184281 1749.629593 120 109 57
-307.583475 -86.184281 1749.629593 120 109 57
-279.718733 374.393582 1382.776737 196 187 138
-262.247276 495.331812 1344.155216 191 190 193
-246.986580 670.129061 1227.133560 179 181 183
-272.072816 388.532948 1398.141384 70 74 67
-269.468808 407.389545 1389.934540 171 172 161
-307.264400 -194.739997 1852.487755 79 72 40
-314.116406 -288.925314 1916.111946 186 178 103
-298.569441 -189.118671 1853.360558 98 94 53
-283.171654 288.987446 1406.176853 130 136 112
-303.793383 -360.103631 2006.196785 163 146 82
-245.694256 181.168902 1716.974258 157 133 84
-268.082428 30.509636 1745.175171 117 105 77
-268.082428 30.509636 1745.175171 117 105 77
-266.069221 353.571224 1400.878429 37 40 28
-263.248181 50.440681 1745.969200 121 106 64
-261.145878 363.935423 1406.598759 54 59 32
-263.145614 350.868654 1402.194118 119 122 95
-239.988089 174.876547 1721.818161 111 94 49
-264.473701 10.433897 1749.755096 19 18 18
-281.042910 -108.275175 1764.453316 128 118 56
-240.469909 113.854396 1745.226288 70 61 34
-276.468229 -75.071436 1740.660477 162 153 89
-228.391457 191.494453 1710.842705 163 144 82
-237.861753 86.729562 1754.405785 78 73 45
-255.422688 235.089207 1498.921585 94 99 60
-290.080905 -467.570162 2020.563126 161 152 86
-279.246950 -300.885272 1907.578659 180 173 108
-253.846622 238.681817 1496.792316 184 187 175
-252.138686 248.222566 1486.818600 128 128 100
-220.598364 132.829845 1757.007790 104 96 61
-250.233078 237.612796 1492.747307 92 98 62
-259.268379 -64.942908 1731.614113 179 174 115
-264.043427 -303.636670 1918.471909 22 20 14
-263.001633 -389.316487 1989.786911 148 139 90
-262.136507 -222.583652 1831.085587 162 161 98
-260.572767 -276.131535 1888.451958 46 37 22
-230.242038 373.328257 1419.471359 59 61 36
-252.419901 -81.563717 1740.227318 175 162 99
-257.120872 -270.870042 1888.594246 181 172 124
-200.586581 221.960187 1695.898438 53 48 29
-255.589819 -200.007486 1808.756638 52 54 20
-190.109837 227.059793 1704.575539 249 234 228
-244.568419 -399.748778 1999.170494 170 157 102
-240.894151 -412.670708 2025.699806 19 15 10
-198.986304 547.328806 1352.143955 124 128 135
-197.947049 530.945015 1363.557053 102 101 104
-197.947049 530.945015 1363.557053 102 101 104
-240.883183 -436.937761 2027.361870 41 36 28
-240.745282 -197.502649 1806.632805 177 164 117
-205.872583 414.807940 1417.490196 141 146 91
-246.364999 -472.290945 2012.269402 169 162 92
-228.745747 -66.760975 1722.745323 171 160 89
-191.004741 559.662247 1346.869183 212 201 172
-233.067536 -151.766312 1771.803665 181 175 120
-191.466594 536.481667 1359.341145 166 168 160
-191.466594 536.481667 1359.341145 166 168 160
-200.982404 401.827431 1425.909519 151 151 102
-200.982404 401.827431 1425.909519 151 151 102
-158.080518 148.642135 1852.515030 250 236 231
-213.347864 270.515656 1480.123043 108 126 92
-213.347864 270.515656 1480.123043 108 126 92
-186.118662 560.787106 1346.724892 133 134 123
-186.118662 560.787106 1346.724892 133 134 123
-211.904383 239.426112 1500.870800 186 185 155
-202.867556 -10.046565 1749.042130 60 62 56
-224.157143 -195.330405 1807.170296 80 76 38
-183.229220 547.807074 1355.132866 87 91 100
-183.229220 547.807074 1355.132866 87 91 100
-181.272817 564.039898 1346.861076 213 202 161
-193.523824 406.465578 1422.468472 159 162 116
-144.987762 153.728974 1851.649857 252 236 233
-181.583226 516.266346 1371.699333 190 210 216
-178.256631 557.400608 1350.510216 106 102 98
-204.904008 -56.361735 1741.650772 77 69 50
-176.427150 560.658121 1350.053024 107 106 107
-182.243752 44.260085 1746.528625 15 15 12
-209.219122 -246.018624 1864.604187 32 28 21
-138.465953 157.459593 1851.149559 22 18 19
-202.359819 -280.008769 1920.124817 155 153 86
-209.336686 -235.049033 1842.638779 164 157 96
-206.239390 -250.430369 1869.618416 35 32 23
-133.625674 162.255061 1851.184845 247 234 228
-176.660478 48.907170 1742.659378 114 113 67
-179.708517 39.697638 1734.206009 107 100 59
-171.529007 530.294275 1368.044949 151 145 126
-203.560519 -188.861346 1811.744499 89 85 37
-192.302728 -46.565863 1744.724846 65 61 46
-191.767347 -26.567745 1728.622437 38 37 29
-186.796784 -15.663438 1732.458115 15 15 13
-181.042874 14.799270 1728.711891 12 11 9
-124.161887 163.557088 1851.435089 251 234 231
-186.784637 -39.026400 1733.988571 36 32 30
-181.531262 -6.291717 1723.470306 117 118 92
-187.253702 240.489268 1500.894165 183 180 154
-169.778335 43.301651 1725.841522 17 15 12
-191.852915 -244.391680 1851.068306 147 143 83
-167.459786 390.782619 1433.381271 116 112 55
-109.717166 160.795903 1849.001312 249 233 230
-174.522650 234.999251 1511.721420 153 162 105
-168.934429 -5.347959 1711.135101 162 147 99
-168.448472 -46.946314 1733.516693 137 133 90
-169.905460 -43.999064 1718.104362 137 133 90
-163.542461 368.624949 1427.979755 160 149 94
-161.486959 359.267402 1436.837959 78 80 43
-156.286204 -155.600154 1840.790367 23 20 12
-151.366818 -260.977530 1931.550217 25 22 17
-151.799822 -151.583052 1840.318680 158 151 100
-159.956896 -39.851710 1721.558762 134 125 72
-158.100796 -48.983964 1729.532051 156 138 86
-159.375799 272.213674 1487.675190 101 127 65
-137.779260 557.691193 1360.060215 122 125 127
-136.757231 578.634310 1348.852730 126 134 148
-136.757231 578.634310 1348.852730 126 134 148
-143.200922 45.220146 1712.180519 21 19 16
-135.812175 583.632517 1345.768642 104 117 133
-155.152452 233.547187 1520.358753 154 159 98
-136.904907 68.248546 1712.477684 16 14 13
-137.132061 -194.900668 1881.703758 41 40 20
-149.292922 -19.325718 1701.511002 150 138 82
-149.056506 267.587566 1496.981621 182 184 161
-142.106688 387.068868 1437.388039 149 145 79
-139.283419 392.740893 1439.675713 118 115 63
-130.484259 70.743144 1703.228760 130 120 83
-144.377303 -10.514997 1704.440689 24 23 22
-126.510561 -148.617458 1868.212700 194 188 113
-131.455731 -258.647251 1924.167633 50 43 20
-129.068339 -179.171515 1877.325058 36 30 24
-126.233363 -139.189076 1858.500671 81 77 42
-142.835546 -14.497876 1704.479027 15 14 13
-127.501309 74.856257 1700.056648 95 82 60
-127.501309 74.856257 1700.056648 95 82 60
-154.714358 296.615863 1430.233669 71 79 34
-130.698919 419.854116 1437.327480 174 169 111
-128.514564 -250.199580 1915.598488 48 42 20
-126.203227 -207.370853 1893.324852 145 135 84
-123.995864 -176.181984 1877.633858 140 139 79
-140.709174 233.809400 1523.237896 156 165 103
-126.540291 -115.978301 1820.942688 11 9 7
-126.872301 -115.525496 1818.198204 11 9 7
-140.703523 -25.753123 1698.025703 79 74 42
-120.938349 -201.690292 1884.973145 99 97 46
-100.253808 188.835740 1686.610603 247 231 226
-123.601747 416.040802 1435.662842 104 106 53
-128.257167 -63.070303 1743.519592 180 178 119
-107.376146 -140.765285 1876.124763 127 117 70
-132.484877 271.597886 1497.617722 113 124 89
-114.642155 -247.323227 1918.673515 160 145 88
-125.093615 21.502209 1695.314407 151 134 87
-144.050276 302.598381 1430.247974 73 79 54
-132.339370 267.919087 1498.284626 177 181 155
-102.093446 174.911737 1677.223206 97 88 47
-119.940341 55.140215 1686.178017 68 61 41
-104.044223 -146.527612 1882.175827 59 59 36
-118.978584 419.790316 1437.955093 159 163 99
-98.848629 175.255418 1679.380417 78 66 37
-102.273548 168.754315 1667.797470 82 70 42
-94.352078 192.184412 1681.126785 62 58 34
-111.814296 -196.948087 1876.516533 177 164 103
-129.832280 -33.953366 1697.794533 176 165 99
-103.153658 156.618869 1670.223236 82 72 53
-91.743755 204.462028 1672.985458 70 67 38
-115.690911 417.051125 1439.078808 92 100 50
-123.839116 25.932559 1669.704628 141 126 71
-94.843173 -164.381218 1905.627441 39 38 21
-110.521340 536.053419 1377.310181 117 128 136
-89.459908 213.156128 1671.658516 77 68 53
-86.857527 219.057441 1670.751762 82 79 59
-94.542253 183.975744 1664.694405 164 149 85
-96.025175 163.947201 1668.542480 180 162 96
-118.704271 -12.963377 1700.257301 63 52 35
-93.982714 171.985352 1663.912582 112 101 40
-78.232414 -204.697394 1970.579529 26 24 20
-76.238346 -222.773361 1988.042831 173 175 102
-104.676306 532.443666 1382.230854 135 142 152
-81.237841 -216.098499 1951.978111 173 175 102
-116.223907 -28.143227 1698.041534 17 13 11
-74.358553 -192.023182 1958.889198 53 50 37
-74.358553 -192.023182 1958.889198 53 50 37
-103.107965 -27.932188 1739.677620 31 28 24
-100.971758 538.153791 1379.459953 128 132 138
